//X,Y,Z,R,G,B,PointSourceId,UserData,ScanAngleRank,EdgeOfFlightLine,ScanDirectionFlag,NumberOfReturns,ReturnNumber,Intensity,Classification
-56362.90625000,-3754990.06250000,35.88999939,105,245,147,147.000000,0.000000,1.000000,0.000000,1.000000,1.000000,1.000000,185.000000,2.000000
-56362.74609375,-3754990.87500000,35.93999863,105,245,146,147.000000,0.000000,1.000000,0.000000,1.000000,1.000000,1.000000,203.000000,2.000000
-56362.60937500,-3754991.75000000,36.00000000,106,245,146,147.000000,0.000000,1.000000,0.000000,1.000000,1.000000,1.000000,196.000000,2.000000
-56362.45703125,-3754992.62500000,36.04000092,106,245,145,147.000000,0.000000,1.000000,0.000000,1.000000,1.000000,1.000000,211.000000,2.000000
-56362.29687500,-3754993.50000000,36.04999924,106,245,145,147.000000,0.000000,1.000000,0.000000,1.000000,1.000000,1.000000,220.000000,2.000000
-56361.40625000,-3754993.43750000,36.06000137,106,245,145,147.000000,0.000000,1.000000,0.000000,0.000000,1.000000,1.000000,145.000000,2.000000
-56361.55859375,-3754992.62500000,36.04999924,106,245,145,147.000000,0.000000,1.000000,0.000000,0.000000,1.000000,1.000000,137.000000,2.000000
-56361.70703125,-3754991.75000000,35.97000122,106,245,146,147.000000,0.000000,1.000000,0.000000,0.000000,1.000000,1.000000,138.000000,2.000000
-56361.84765625,-3754990.87500000,35.91999817,105,245,146,147.000000,0.000000,1.000000,0.000000,0.000000,1.000000,1.000000,137.000000,2.000000
-56361.99609375,-3754990.06250000,35.88000107,105,245,147,147.000000,0.000000,1.000000,0.000000,0.000000,1.000000,1.000000,90.000000,2.000000
-56362.15625000,-3754988.25000000,33.70999908,84,244,167,147.000000,0.000000,1.000000,0.000000,0.000000,2.000000,2.000000,23.000000,2.000000
-56362.31640625,-3754987.37500000,33.72999954,84,244,167,147.000000,0.000000,1.000000,0.000000,0.000000,2.000000,2.000000,24.000000,2.000000
-56362.60937500,-3754985.68750000,33.72999954,84,244,167,147.000000,0.000000,1.000000,0.000000,0.000000,2.000000,2.000000,33.000000,2.000000
-56364.26953125,-3754975.37500000,31.54000092,63,242,188,147.000000,0.000000,0.000000,0.000000,0.000000,1.000000,1.000000,87.000000,2.000000
-56364.40625000,-3754974.50000000,31.54000092,63,242,188,147.000000,0.000000,0.000000,0.000000,0.000000,1.000000,1.000000,65.000000,2.000000
-56364.55859375,-3754973.68750000,31.51000023,63,242,188,147.000000,0.000000,0.000000,0.000000,0.000000,1.000000,1.000000,84.000000,2.000000
-56364.70703125,-3754972.87500000,31.48999977,63,242,188,147.000000,0.000000,0.000000,0.000000,0.000000,1.000000,1.000000,91.000000,2.000000
-56364.84765625,-3754972.00000000,31.47999954,63,242,188,147.000000,0.000000,0.000000,0.000000,0.000000,1.000000,1.000000,82.000000,2.000000
-56364.99609375,-3754971.12500000,31.40999985,62,242,189,147.000000,0.000000,0.000000,0.000000,0.000000,1.000000,1.000000,82.000000,2.000000
-56365.13671875,-3754970.31250000,31.29000092,61,242,190,147.000000,0.000000,0.000000,0.000000,0.000000,1.000000,1.000000,57.000000,2.000000
-56365.28906250,-3754969.43750000,31.19000053,60,242,191,147.000000,0.000000,0.000000,0.000000,0.000000,1.000000,1.000000,56.000000,2.000000
-56365.42968750,-3754968.62500000,31.17000008,60,242,191,147.000000,0.000000,0.000000,0.000000,0.000000,1.000000,1.000000,69.000000,2.000000
-56365.57812500,-3754967.75000000,31.11000061,59,242,192,147.000000,0.000000,0.000000,0.000000,0.000000,1.000000,1.000000,61.000000,2.000000
-56365.72656250,-3754966.93750000,31.09000015,59,242,192,147.000000,0.000000,0.000000,0.000000,0.000000,1.000000,1.000000,67.000000,2.000000
-56366.00781250,-3754965.25000000,31.06999969,59,242,192,147.000000,0.000000,0.000000,0.000000,0.000000,1.000000,1.000000,73.000000,2.000000
-56366.16796875,-3754964.37500000,30.98999977,58,242,193,147.000000,0.000000,0.000000,0.000000,0.000000,1.000000,1.000000,70.000000,2.000000
-56366.31640625,-3754963.50000000,31.07999992,59,242,192,147.000000,0.000000,0.000000,0.000000,0.000000,1.000000,1.000000,84.000000,2.000000
-56366.44921875,-3754962.68750000,31.00000000,58,242,193,147.000000,0.000000,0.000000,0.000000,0.000000,1.000000,1.000000,81.000000,2.000000
-56366.59765625,-3754961.87500000,30.95999908,58,242,193,147.000000,0.000000,0.000000,0.000000,0.000000,1.000000,1.000000,65.000000,2.000000
-56366.74609375,-3754961.00000000,30.86000061,57,242,194,147.000000,0.000000,0.000000,0.000000,0.000000,1.000000,1.000000,53.000000,2.000000
-56366.88671875,-3754960.18750000,30.82999992,56,242,194,147.000000,0.000000,0.000000,0.000000,0.000000,1.000000,1.000000,50.000000,2.000000
-56367.03906250,-3754959.31250000,30.75000000,56,242,195,147.000000,0.000000,0.000000,0.000000,0.000000,1.000000,1.000000,46.000000,2.000000
-56367.17968750,-3754958.50000000,30.69000053,55,242,196,147.000000,0.000000,0.000000,0.000000,0.000000,1.000000,1.000000,49.000000,2.000000
-56367.31640625,-3754957.68750000,30.65999985,55,242,196,147.000000,0.000000,0.000000,0.000000,0.000000,1.000000,1.000000,54.000000,2.000000
-56367.46875000,-3754956.75000000,30.63999939,55,242,196,147.000000,0.000000,0.000000,0.000000,0.000000,1.000000,1.000000,54.000000,2.000000
-56367.61718750,-3754955.93750000,30.63999939,55,242,196,147.000000,0.000000,0.000000,0.000000,0.000000,1.000000,1.000000,47.000000,2.000000
-56367.76953125,-3754955.12500000,30.67000008,55,242,196,147.000000,0.000000,0.000000,0.000000,0.000000,1.000000,1.000000,56.000000,2.000000
-56367.90625000,-3754954.31250000,30.69000053,55,242,196,147.000000,0.000000,0.000000,0.000000,0.000000,1.000000,1.000000,61.000000,2.000000
-56368.05859375,-3754953.50000000,30.77000046,56,242,195,147.000000,0.000000,0.000000,0.000000,0.000000,1.000000,1.000000,35.000000,2.000000
-56370.52734375,-3754939.31250000,30.32999992,52,242,199,147.000000,0.000000,0.000000,0.000000,0.000000,1.000000,1.000000,33.000000,2.000000
-56370.66796875,-3754938.43750000,30.29999924,51,242,199,147.000000,0.000000,0.000000,0.000000,0.000000,1.000000,1.000000,61.000000,2.000000
-56371.07812500,-3754935.93750000,29.81999969,47,241,204,147.000000,0.000000,0.000000,0.000000,0.000000,1.000000,1.000000,108.000000,2.000000
-56371.22656250,-3754935.12500000,29.79999924,46,241,204,147.000000,0.000000,0.000000,0.000000,0.000000,1.000000,1.000000,113.000000,2.000000
-56371.36718750,-3754934.31250000,29.75000000,46,241,204,147.000000,0.000000,0.000000,0.000000,0.000000,1.000000,1.000000,104.000000,2.000000
-56371.50781250,-3754933.43750000,29.70999908,46,241,205,147.000000,0.000000,0.000000,0.000000,0.000000,1.000000,1.000000,115.000000,2.000000
-56371.65625000,-3754932.62500000,29.69000053,46,241,205,147.000000,0.000000,0.000000,0.000000,0.000000,1.000000,1.000000,96.000000,2.000000
-56371.15625000,-3754933.18750000,29.70000076,46,241,205,147.000000,0.000000,0.000000,0.000000,1.000000,1.000000,1.000000,159.000000,2.000000
-56371.00781250,-3754934.06250000,29.71999931,46,241,205,147.000000,0.000000,0.000000,0.000000,1.000000,1.000000,1.000000,135.000000,2.000000
-56370.86718750,-3754934.93750000,29.79999924,46,241,204,147.000000,0.000000,0.000000,0.000000,1.000000,1.000000,1.000000,146.000000,2.000000
-56370.72656250,-3754935.75000000,29.81999969,47,241,204,147.000000,0.000000,0.000000,0.000000,1.000000,1.000000,1.000000,169.000000,2.000000
-56370.15625000,-3754939.12500000,30.37000084,52,242,199,147.000000,0.000000,0.000000,0.000000,1.000000,1.000000,1.000000,81.000000,2.000000
-56367.66796875,-3754953.37500000,30.76000023,56,242,195,147.000000,0.000000,0.000000,0.000000,1.000000,1.000000,1.000000,66.000000,2.000000
-56367.51953125,-3754954.18750000,30.76000023,56,242,195,147.000000,0.000000,0.000000,0.000000,1.000000,1.000000,1.000000,107.000000,2.000000
-56367.35937500,-3754955.06250000,30.65999985,55,242,196,147.000000,0.000000,0.000000,0.000000,1.000000,1.000000,1.000000,105.000000,2.000000
-56367.21875000,-3754955.87500000,30.65999985,55,242,196,147.000000,0.000000,0.000000,0.000000,1.000000,1.000000,1.000000,75.000000,2.000000
-56367.07812500,-3754956.68750000,30.68000031,55,242,196,147.000000,0.000000,0.000000,0.000000,1.000000,1.000000,1.000000,82.000000,2.000000
-56366.91796875,-3754957.56250000,30.68000031,55,242,196,147.000000,0.000000,0.000000,0.000000,1.000000,1.000000,1.000000,64.000000,2.000000
-56366.76953125,-3754958.43750000,30.71999931,55,242,195,147.000000,0.000000,0.000000,0.000000,1.000000,1.000000,1.000000,96.000000,2.000000
-56366.62890625,-3754959.25000000,30.71999931,55,242,195,147.000000,0.000000,0.000000,0.000000,1.000000,1.000000,1.000000,83.000000,2.000000
-56366.47656250,-3754960.12500000,30.82999992,56,242,194,147.000000,0.000000,0.000000,0.000000,1.000000,1.000000,1.000000,70.000000,2.000000
-56366.32812500,-3754961.00000000,30.86000061,57,242,194,147.000000,0.000000,0.000000,0.000000,1.000000,1.000000,1.000000,87.000000,2.000000
-56366.18750000,-3754961.81250000,30.95000076,58,242,193,147.000000,0.000000,0.000000,0.000000,1.000000,1.000000,1.000000,100.000000,2.000000
-56366.03906250,-3754962.68750000,31.02000046,58,242,192,147.000000,0.000000,0.000000,0.000000,1.000000,1.000000,1.000000,114.000000,2.000000
-56365.89843750,-3754963.50000000,31.04000092,59,242,192,147.000000,0.000000,0.000000,0.000000,1.000000,1.000000,1.000000,98.000000,2.000000
-56365.74609375,-3754964.37500000,31.03000069,58,242,192,147.000000,0.000000,0.000000,0.000000,1.000000,1.000000,1.000000,113.000000,2.000000
-56365.58984375,-3754965.18750000,31.03000069,58,242,192,147.000000,0.000000,0.000000,0.000000,1.000000,1.000000,1.000000,93.000000,2.000000
-56365.44921875,-3754966.06250000,31.05999947,59,242,192,147.000000,0.000000,0.000000,0.000000,1.000000,1.000000,1.000000,93.000000,2.000000
-56365.29687500,-3754966.93750000,31.06999969,59,242,192,147.000000,0.000000,0.000000,0.000000,1.000000,1.000000,1.000000,85.000000,2.000000
-56365.14843750,-3754967.75000000,31.12000084,59,242,192,147.000000,0.000000,0.000000,0.000000,1.000000,1.000000,1.000000,90.000000,2.000000
-56365.00781250,-3754968.56250000,31.20000076,60,242,191,147.000000,0.000000,0.000000,0.000000,1.000000,1.000000,1.000000,89.000000,2.000000
-56364.85937500,-3754969.50000000,31.18000031,60,242,191,147.000000,0.000000,0.000000,0.000000,1.000000,1.000000,1.000000,111.000000,2.000000
-56364.70703125,-3754970.31250000,31.30999947,61,242,190,147.000000,0.000000,0.000000,0.000000,1.000000,1.000000,1.000000,117.000000,2.000000
-56364.56640625,-3754971.18750000,31.52000046,63,242,188,147.000000,0.000000,0.000000,0.000000,1.000000,1.000000,1.000000,101.000000,2.000000
-56364.42968750,-3754972.00000000,31.48999977,63,242,188,147.000000,0.000000,0.000000,0.000000,1.000000,1.000000,1.000000,111.000000,2.000000
-56364.27734375,-3754972.87500000,31.53000069,63,242,188,147.000000,0.000000,0.000000,0.000000,1.000000,1.000000,1.000000,97.000000,2.000000
-56364.11718750,-3754973.75000000,31.53000069,63,242,188,147.000000,0.000000,0.000000,0.000000,1.000000,1.000000,1.000000,95.000000,2.000000
-56363.97656250,-3754974.56250000,31.52000046,63,242,188,147.000000,0.000000,0.000000,0.000000,1.000000,1.000000,1.000000,124.000000,2.000000
-56362.58984375,-3754983.25000000,33.68999863,84,244,167,147.000000,0.000000,1.000000,0.000000,1.000000,2.000000,2.000000,0.000000,2.000000
-56362.44921875,-3754984.06250000,33.72000122,84,244,167,147.000000,0.000000,1.000000,0.000000,1.000000,3.000000,3.000000,11.000000,2.000000
-56361.52734375,-3754990.18750000,35.91999817,105,245,146,147.000000,0.000000,1.000000,0.000000,1.000000,1.000000,1.000000,130.000000,2.000000
-56361.37890625,-3754991.06250000,35.90000153,105,245,147,147.000000,0.000000,1.000000,0.000000,1.000000,1.000000,1.000000,177.000000,2.000000
-56361.22656250,-3754991.93750000,35.99000168,106,245,146,147.000000,0.000000,1.000000,0.000000,1.000000,1.000000,1.000000,193.000000,2.000000
-56361.07812500,-3754992.75000000,36.02999878,106,245,145,147.000000,0.000000,1.000000,0.000000,1.000000,1.000000,1.000000,223.000000,2.000000
-56360.93750000,-3754993.62500000,36.06000137,106,245,145,147.000000,0.000000,1.000000,0.000000,1.000000,1.000000,1.000000,186.000000,2.000000
-56360.76953125,-3754994.50000000,36.02999878,106,245,145,147.000000,0.000000,1.000000,0.000000,1.000000,1.000000,1.000000,181.000000,2.000000
-56360.62890625,-3754995.37500000,36.08000183,107,245,145,147.000000,0.000000,1.000000,0.000000,1.000000,1.000000,1.000000,142.000000,2.000000
-56359.18750000,-3754999.81250000,36.20999908,108,245,144,147.000000,0.000000,1.000000,0.000000,0.000000,1.000000,1.000000,172.000000,2.000000
-56360.22656250,-3754993.87500000,36.06999969,106,245,145,147.000000,0.000000,1.000000,0.000000,0.000000,1.000000,1.000000,126.000000,2.000000
-56360.36718750,-3754993.00000000,36.04000092,106,245,145,147.000000,0.000000,1.000000,0.000000,0.000000,1.000000,1.000000,138.000000,2.000000
-56360.51953125,-3754992.18750000,35.97999954,106,245,146,147.000000,0.000000,1.000000,0.000000,0.000000,1.000000,1.000000,126.000000,2.000000
-56360.66796875,-3754991.25000000,35.86000061,105,245,147,147.000000,0.000000,1.000000,0.000000,0.000000,1.000000,1.000000,106.000000,2.000000
-56360.97656250,-3754988.62500000,33.77000046,84,244,167,147.000000,0.000000,1.000000,0.000000,0.000000,1.000000,1.000000,64.000000,2.000000
-56361.99609375,-3754982.68750000,33.50999832,82,244,169,147.000000,0.000000,1.000000,0.000000,0.000000,2.000000,2.000000,2.000000,2.000000
-56363.37890625,-3754974.12500000,31.54000092,63,242,188,147.000000,0.000000,0.000000,0.000000,0.000000,1.000000,1.000000,91.000000,2.000000
-56363.51953125,-3754973.25000000,31.51000023,63,242,188,147.000000,0.000000,0.000000,0.000000,0.000000,1.000000,1.000000,71.000000,2.000000
-56363.66796875,-3754972.37500000,31.54000092,63,242,188,147.000000,0.000000,0.000000,0.000000,0.000000,1.000000,1.000000,63.000000,2.000000
-56363.82812500,-3754971.56250000,31.57999992,64,242,187,147.000000,0.000000,0.000000,0.000000,0.000000,1.000000,1.000000,44.000000,2.000000
-56364.23828125,-3754969.06250000,31.20999908,60,242,191,147.000000,0.000000,0.000000,0.000000,0.000000,1.000000,1.000000,80.000000,2.000000
-56364.39843750,-3754968.12500000,31.20000076,60,242,191,147.000000,0.000000,0.000000,0.000000,0.000000,1.000000,1.000000,74.000000,2.000000
-56364.53906250,-3754967.31250000,31.15999985,60,242,191,147.000000,0.000000,0.000000,0.000000,0.000000,1.000000,1.000000,75.000000,2.000000
-56364.67968750,-3754966.50000000,31.09000015,59,242,192,147.000000,0.000000,0.000000,0.000000,0.000000,1.000000,1.000000,47.000000,2.000000
-56364.82812500,-3754965.62500000,31.04999924,59,242,192,147.000000,0.000000,0.000000,0.000000,0.000000,1.000000,1.000000,52.000000,2.000000
-56364.96875000,-3754964.81250000,31.02000046,58,242,192,147.000000,0.000000,0.000000,0.000000,0.000000,1.000000,1.000000,46.000000,2.000000
-56365.12890625,-3754963.93750000,31.02000046,58,242,192,147.000000,0.000000,0.000000,0.000000,0.000000,1.000000,1.000000,37.000000,2.000000
-56365.26953125,-3754963.12500000,31.01000023,58,242,193,147.000000,0.000000,0.000000,0.000000,0.000000,1.000000,1.000000,43.000000,2.000000
-56365.41796875,-3754962.31250000,30.98999977,58,242,193,147.000000,0.000000,0.000000,0.000000,0.000000,1.000000,1.000000,60.000000,2.000000
-56365.55859375,-3754961.43750000,30.95000076,58,242,193,147.000000,0.000000,0.000000,0.000000,0.000000,1.000000,1.000000,45.000000,2.000000
-56365.69921875,-3754960.62500000,30.87999916,57,242,194,147.000000,0.000000,0.000000,0.000000,0.000000,1.000000,1.000000,37.000000,2.000000
-56365.84765625,-3754959.75000000,30.78000069,56,242,195,147.000000,0.000000,0.000000,0.000000,0.000000,1.000000,1.000000,32.000000,2.000000
-56365.98828125,-3754958.87500000,30.75000000,56,242,195,147.000000,0.000000,0.000000,0.000000,0.000000,1.000000,1.000000,54.000000,2.000000
-56366.12890625,-3754958.06250000,30.72999954,55,242,195,147.000000,0.000000,0.000000,0.000000,0.000000,1.000000,1.000000,36.000000,2.000000
-56366.27734375,-3754957.25000000,30.67000008,55,242,196,147.000000,0.000000,0.000000,0.000000,0.000000,1.000000,1.000000,43.000000,2.000000
-56366.42968750,-3754956.43750000,30.69000053,55,242,196,147.000000,0.000000,0.000000,0.000000,0.000000,1.000000,1.000000,58.000000,2.000000
-56366.56640625,-3754955.56250000,30.67000008,55,242,196,147.000000,0.000000,0.000000,0.000000,0.000000,1.000000,1.000000,55.000000,2.000000
-56367.02734375,-3754953.06250000,30.79999924,56,242,194,147.000000,0.000000,0.000000,0.000000,0.000000,1.000000,1.000000,41.000000,2.000000
-56369.34765625,-3754939.75000000,30.37000084,52,242,199,147.000000,0.000000,0.000000,0.000000,0.000000,1.000000,1.000000,50.000000,2.000000
-56369.76953125,-3754937.25000000,30.28000069,51,242,199,147.000000,0.000000,0.000000,0.000000,0.000000,1.000000,1.000000,60.000000,2.000000
-56369.88671875,-3754936.37500000,29.82999992,47,241,204,147.000000,0.000000,0.000000,0.000000,0.000000,2.000000,2.000000,0.000000,2.000000
-56370.02734375,-3754935.56250000,29.80999947,47,241,204,147.000000,0.000000,0.000000,0.000000,0.000000,1.000000,1.000000,81.000000,2.000000
-56370.17968750,-3754934.75000000,29.76000023,46,241,204,147.000000,0.000000,0.000000,0.000000,0.000000,1.000000,1.000000,122.000000,2.000000
-56370.31640625,-3754933.87500000,29.72999954,46,241,204,147.000000,0.000000,0.000000,0.000000,0.000000,1.000000,1.000000,106.000000,2.000000
-56370.46875000,-3754933.06250000,29.73999977,46,241,204,147.000000,0.000000,0.000000,0.000000,0.000000,1.000000,1.000000,88.000000,2.000000
-56369.63671875,-3754934.31250000,29.95000076,48,241,202,147.000000,0.000000,0.000000,0.000000,1.000000,1.000000,1.000000,160.000000,2.000000
-56369.07812500,-3754937.62500000,30.29999924,51,242,199,147.000000,0.000000,0.000000,0.000000,1.000000,1.000000,1.000000,91.000000,2.000000
-56368.78906250,-3754939.37500000,30.35000038,52,242,199,147.000000,0.000000,0.000000,0.000000,1.000000,1.000000,1.000000,93.000000,2.000000
-56368.63671875,-3754940.18750000,30.37999916,52,242,199,147.000000,0.000000,0.000000,0.000000,1.000000,1.000000,1.000000,77.000000,2.000000
-56365.83984375,-3754956.12500000,30.69000053,55,242,196,147.000000,0.000000,0.000000,0.000000,1.000000,1.000000,1.000000,106.000000,2.000000
-56365.68750000,-3754956.93750000,30.72999954,55,242,195,147.000000,0.000000,0.000000,0.000000,1.000000,1.000000,1.000000,92.000000,2.000000
-56365.53906250,-3754957.81250000,30.70999908,55,242,195,147.000000,0.000000,0.000000,0.000000,1.000000,1.000000,1.000000,71.000000,2.000000
-56365.38671875,-3754958.68750000,30.76000023,56,242,195,147.000000,0.000000,0.000000,0.000000,1.000000,1.000000,1.000000,56.000000,2.000000
-56365.23828125,-3754959.50000000,30.78000069,56,242,195,147.000000,0.000000,0.000000,0.000000,1.000000,1.000000,1.000000,100.000000,2.000000
-56365.10937500,-3754960.37500000,30.97999954,58,242,193,147.000000,0.000000,0.000000,0.000000,1.000000,1.000000,1.000000,55.000000,2.000000
-56364.95703125,-3754961.18750000,31.03000069,58,242,192,147.000000,0.000000,0.000000,0.000000,1.000000,1.000000,1.000000,77.000000,2.000000
-56364.79687500,-3754962.06250000,31.02000046,58,242,192,147.000000,0.000000,0.000000,0.000000,1.000000,1.000000,1.000000,80.000000,2.000000
-56364.65625000,-3754962.87500000,31.01000023,58,242,193,147.000000,0.000000,0.000000,0.000000,1.000000,1.000000,1.000000,95.000000,2.000000
-56364.50781250,-3754963.75000000,31.01000023,58,242,193,147.000000,0.000000,0.000000,0.000000,1.000000,1.000000,1.000000,73.000000,2.000000
-56364.35937500,-3754964.62500000,31.02000046,58,242,192,147.000000,0.000000,0.000000,0.000000,1.000000,1.000000,1.000000,114.000000,2.000000
-56364.21875000,-3754965.43750000,31.07999992,59,242,192,147.000000,0.000000,0.000000,0.000000,1.000000,1.000000,1.000000,106.000000,2.000000
-56364.05859375,-3754966.31250000,31.10000038,59,242,192,147.000000,0.000000,0.000000,0.000000,1.000000,1.000000,1.000000,116.000000,2.000000
-56363.91796875,-3754967.12500000,31.13999939,59,242,191,147.000000,0.000000,0.000000,0.000000,1.000000,1.000000,1.000000,110.000000,2.000000
-56363.76953125,-3754968.00000000,31.14999962,59,242,191,147.000000,0.000000,0.000000,0.000000,1.000000,1.000000,1.000000,107.000000,2.000000
-56363.61718750,-3754968.87500000,31.37000084,62,242,189,147.000000,0.000000,0.000000,0.000000,1.000000,2.000000,2.000000,0.000000,2.000000
-56363.03906250,-3754972.25000000,31.55999947,63,242,187,147.000000,0.000000,0.000000,0.000000,1.000000,1.000000,1.000000,110.000000,2.000000
-56362.88671875,-3754973.12500000,31.52000046,63,242,188,147.000000,0.000000,0.000000,0.000000,1.000000,1.000000,1.000000,123.000000,2.000000
-56362.49609375,-3754975.75000000,32.68000031,74,243,177,147.000000,0.000000,0.000000,0.000000,1.000000,1.000000,1.000000,254.000000,2.000000
-56361.05859375,-3754984.31250000,33.56999969,83,244,168,147.000000,0.000000,1.000000,0.000000,1.000000,2.000000,2.000000,8.000000,2.000000
-56360.45703125,-3754987.75000000,33.83000183,85,244,166,147.000000,0.000000,1.000000,0.000000,1.000000,2.000000,2.000000,107.000000,2.000000
-56360.30859375,-3754988.56250000,33.81999969,85,244,166,147.000000,0.000000,1.000000,0.000000,1.000000,2.000000,2.000000,69.000000,2.000000
-56360.15625000,-3754989.50000000,33.88999939,86,244,166,147.000000,0.000000,1.000000,0.000000,1.000000,2.000000,2.000000,7.000000,2.000000
-56359.97656250,-3754991.25000000,35.86999893,105,245,147,147.000000,0.000000,1.000000,0.000000,1.000000,1.000000,1.000000,173.000000,2.000000
-56359.82812500,-3754992.18750000,35.90000153,105,245,147,147.000000,0.000000,1.000000,0.000000,1.000000,1.000000,1.000000,207.000000,2.000000
-56359.68750000,-3754993.00000000,36.02000046,106,245,145,147.000000,0.000000,1.000000,0.000000,1.000000,1.000000,1.000000,213.000000,2.000000
-56359.53906250,-3754993.87500000,36.02000046,106,245,145,147.000000,0.000000,1.000000,0.000000,1.000000,1.000000,1.000000,146.000000,2.000000
-56359.05859375,-3754992.68750000,35.93999863,105,245,146,147.000000,0.000000,1.000000,0.000000,0.000000,1.000000,1.000000,114.000000,2.000000
-56359.19921875,-3754991.81250000,35.86999893,105,245,147,147.000000,0.000000,1.000000,0.000000,0.000000,1.000000,1.000000,110.000000,2.000000
-56359.52734375,-3754989.12500000,33.84999847,85,244,166,147.000000,0.000000,1.000000,0.000000,0.000000,1.000000,1.000000,96.000000,2.000000
-56359.66796875,-3754988.31250000,33.88000107,86,244,166,147.000000,0.000000,1.000000,0.000000,0.000000,2.000000,2.000000,41.000000,2.000000
-56359.81640625,-3754987.43750000,33.72999954,84,244,167,147.000000,0.000000,1.000000,0.000000,0.000000,2.000000,2.000000,23.000000,2.000000
-56360.25781250,-3754984.87500000,33.59999847,83,244,168,147.000000,0.000000,1.000000,0.000000,0.000000,1.000000,1.000000,85.000000,2.000000
-56360.40625000,-3754984.00000000,33.59000015,83,244,168,147.000000,0.000000,1.000000,0.000000,0.000000,2.000000,2.000000,35.000000,2.000000
-56361.55859375,-3754977.18750000,32.83000183,76,243,175,147.000000,0.000000,0.000000,0.000000,0.000000,1.000000,1.000000,119.000000,2.000000
-56361.69921875,-3754976.37500000,32.81999969,75,243,176,147.000000,0.000000,0.000000,0.000000,0.000000,2.000000,2.000000,56.000000,2.000000
-56361.83984375,-3754975.50000000,32.70999908,74,243,176,147.000000,0.000000,0.000000,0.000000,0.000000,1.000000,1.000000,137.000000,2.000000
-56361.99609375,-3754974.62500000,32.68999863,74,243,177,147.000000,0.000000,0.000000,0.000000,0.000000,1.000000,1.000000,121.000000,2.000000
-56362.36718750,-3754972.06250000,31.54999924,63,242,187,147.000000,0.000000,0.000000,0.000000,0.000000,1.000000,1.000000,78.000000,2.000000
-56363.08984375,-3754967.81250000,31.32999992,61,242,189,147.000000,0.000000,0.000000,0.000000,0.000000,2.000000,2.000000,0.000000,2.000000
-56363.23828125,-3754966.93750000,31.12000084,59,242,192,147.000000,0.000000,0.000000,0.000000,0.000000,1.000000,1.000000,61.000000,2.000000
-56363.37890625,-3754966.12500000,31.13999939,59,242,191,147.000000,0.000000,0.000000,0.000000,0.000000,1.000000,1.000000,66.000000,2.000000
-56363.51953125,-3754965.25000000,31.04999924,59,242,192,147.000000,0.000000,0.000000,0.000000,0.000000,1.000000,1.000000,50.000000,2.000000
-56363.67968750,-3754964.43750000,31.04999924,59,242,192,147.000000,0.000000,0.000000,0.000000,0.000000,1.000000,1.000000,45.000000,2.000000
-56363.81640625,-3754963.56250000,31.01000023,58,242,193,147.000000,0.000000,0.000000,0.000000,0.000000,1.000000,1.000000,39.000000,2.000000
-56363.96875000,-3754962.75000000,31.03000069,58,242,192,147.000000,0.000000,0.000000,0.000000,0.000000,1.000000,1.000000,44.000000,2.000000
-56364.10937500,-3754961.93750000,30.97999954,58,242,193,147.000000,0.000000,0.000000,0.000000,0.000000,1.000000,1.000000,45.000000,2.000000
-56364.25781250,-3754961.06250000,30.97999954,58,242,193,147.000000,0.000000,0.000000,0.000000,0.000000,1.000000,1.000000,41.000000,2.000000
-56364.40625000,-3754960.18750000,30.89999962,57,242,194,147.000000,0.000000,0.000000,0.000000,0.000000,1.000000,1.000000,40.000000,2.000000
-56364.54687500,-3754959.37500000,30.85000038,57,242,194,147.000000,0.000000,0.000000,0.000000,0.000000,1.000000,1.000000,46.000000,2.000000
-56364.68750000,-3754958.50000000,30.79999924,56,242,194,147.000000,0.000000,0.000000,0.000000,0.000000,1.000000,1.000000,39.000000,2.000000
-56364.83984375,-3754957.68750000,30.80999947,56,242,194,147.000000,0.000000,0.000000,0.000000,0.000000,1.000000,1.000000,42.000000,2.000000
-56364.98828125,-3754956.87500000,30.75000000,56,242,195,147.000000,0.000000,0.000000,0.000000,0.000000,1.000000,1.000000,35.000000,2.000000
-56365.12890625,-3754956.00000000,30.77000046,56,242,195,147.000000,0.000000,0.000000,0.000000,0.000000,1.000000,1.000000,57.000000,2.000000
-56367.88671875,-3754940.18750000,30.35000038,52,242,199,147.000000,0.000000,0.000000,0.000000,0.000000,1.000000,1.000000,28.000000,2.000000
-56368.03906250,-3754939.37500000,30.31999969,52,242,199,147.000000,0.000000,0.000000,0.000000,0.000000,1.000000,1.000000,37.000000,2.000000
-56368.17968750,-3754938.50000000,30.30999947,51,242,199,147.000000,0.000000,0.000000,0.000000,0.000000,1.000000,1.000000,67.000000,2.000000
-56368.32812500,-3754937.68750000,30.27000046,51,242,199,147.000000,0.000000,0.000000,0.000000,0.000000,1.000000,1.000000,57.000000,2.000000
-56370.50781250,-3754924.31250000,27.88999939,28,240,222,147.000000,0.000000,-1.000000,0.000000,0.000000,2.000000,2.000000,0.000000,2.000000
-56370.64843750,-3754923.50000000,27.79999924,27,240,223,147.000000,0.000000,-1.000000,0.000000,0.000000,1.000000,1.000000,18.000000,2.000000
-56370.21875000,-3754923.50000000,27.87999916,28,240,222,147.000000,0.000000,-1.000000,0.000000,1.000000,1.000000,1.000000,7.000000,2.000000
-56370.07812500,-3754924.31250000,27.82999992,28,240,222,147.000000,0.000000,-1.000000,0.000000,1.000000,2.000000,2.000000,0.000000,2.000000
-56369.50781250,-3754927.68750000,28.27000046,32,240,218,147.000000,0.000000,-1.000000,0.000000,1.000000,2.000000,2.000000,12.000000,2.000000
-56368.97656250,-3754931.06250000,29.15999985,40,241,210,147.000000,0.000000,0.000000,0.000000,1.000000,2.000000,2.000000,9.000000,2.000000
-56368.29687500,-3754935.31250000,30.15999985,50,242,201,147.000000,0.000000,0.000000,0.000000,1.000000,1.000000,1.000000,162.000000,2.000000
-56367.99609375,-3754937.00000000,30.12000084,50,242,201,147.000000,0.000000,0.000000,0.000000,1.000000,1.000000,1.000000,161.000000,2.000000
-56367.85937500,-3754937.87500000,30.27000046,51,242,199,147.000000,0.000000,0.000000,0.000000,1.000000,1.000000,1.000000,46.000000,2.000000
-56367.71875000,-3754938.68750000,30.32999992,52,242,199,147.000000,0.000000,0.000000,0.000000,1.000000,1.000000,1.000000,58.000000,2.000000
-56364.62890625,-3754956.31250000,30.79000092,56,242,195,147.000000,0.000000,0.000000,0.000000,1.000000,1.000000,1.000000,118.000000,2.000000
-56364.47656250,-3754957.18750000,30.82999992,56,242,194,147.000000,0.000000,0.000000,0.000000,1.000000,1.000000,1.000000,94.000000,2.000000
-56364.33984375,-3754958.00000000,30.80999947,56,242,194,147.000000,0.000000,0.000000,0.000000,1.000000,1.000000,1.000000,72.000000,2.000000
-56364.18750000,-3754958.87500000,30.86000061,57,242,194,147.000000,0.000000,0.000000,0.000000,1.000000,1.000000,1.000000,63.000000,2.000000
-56364.03906250,-3754959.68750000,30.87999916,57,242,194,147.000000,0.000000,0.000000,0.000000,1.000000,1.000000,1.000000,65.000000,2.000000
-56363.88671875,-3754960.50000000,30.95000076,58,242,193,147.000000,0.000000,0.000000,0.000000,1.000000,1.000000,1.000000,66.000000,2.000000
-56363.74609375,-3754961.43750000,31.00000000,58,242,193,147.000000,0.000000,0.000000,0.000000,1.000000,1.000000,1.000000,81.000000,2.000000
-56363.59765625,-3754962.25000000,31.03000069,58,242,192,147.000000,0.000000,0.000000,0.000000,1.000000,1.000000,1.000000,67.000000,2.000000
-56363.44921875,-3754963.06250000,31.04000092,59,242,192,147.000000,0.000000,0.000000,0.000000,1.000000,1.000000,1.000000,76.000000,2.000000
-56363.29687500,-3754963.93750000,31.04999924,59,242,192,147.000000,0.000000,0.000000,0.000000,1.000000,1.000000,1.000000,82.000000,2.000000
-56363.14843750,-3754964.75000000,31.06999969,59,242,192,147.000000,0.000000,0.000000,0.000000,1.000000,1.000000,1.000000,88.000000,2.000000
-56362.99609375,-3754965.62500000,31.13999939,59,242,191,147.000000,0.000000,0.000000,0.000000,1.000000,1.000000,1.000000,80.000000,2.000000
-56362.84765625,-3754966.50000000,31.12999916,59,242,192,147.000000,0.000000,0.000000,0.000000,1.000000,1.000000,1.000000,101.000000,2.000000
-56362.70703125,-3754967.37500000,31.29000092,61,242,190,147.000000,0.000000,0.000000,0.000000,1.000000,2.000000,2.000000,0.000000,2.000000
-56361.59765625,-3754974.25000000,32.65000153,74,243,177,147.000000,0.000000,0.000000,0.000000,1.000000,1.000000,1.000000,207.000000,2.000000
-56361.45703125,-3754975.06250000,32.72000122,74,243,176,147.000000,0.000000,0.000000,0.000000,1.000000,1.000000,1.000000,210.000000,2.000000
-56361.29687500,-3754975.93750000,32.77000046,75,243,176,147.000000,0.000000,0.000000,0.000000,1.000000,1.000000,1.000000,221.000000,2.000000
-56361.15625000,-3754976.75000000,32.79000092,75,243,176,147.000000,0.000000,0.000000,0.000000,1.000000,2.000000,2.000000,55.000000,2.000000
-56361.01953125,-3754977.62500000,32.88999939,76,243,175,147.000000,0.000000,0.000000,0.000000,1.000000,2.000000,2.000000,47.000000,2.000000
-56360.85937500,-3754978.50000000,32.97999954,77,243,174,147.000000,0.000000,0.000000,0.000000,1.000000,2.000000,2.000000,78.000000,2.000000
-56360.71875000,-3754979.37500000,33.02999878,78,243,174,147.000000,0.000000,0.000000,0.000000,1.000000,2.000000,2.000000,36.000000,2.000000
-56359.38671875,-3754987.12500000,33.68000031,84,244,167,147.000000,0.000000,1.000000,0.000000,1.000000,1.000000,1.000000,144.000000,2.000000
-56359.25781250,-3754987.93750000,33.77999878,85,244,166,147.000000,0.000000,1.000000,0.000000,1.000000,1.000000,1.000000,155.000000,2.000000
-56359.10937500,-3754988.75000000,33.86000061,85,244,166,147.000000,0.000000,1.000000,0.000000,1.000000,1.000000,1.000000,177.000000,2.000000
-56358.95703125,-3754989.68750000,34.09999847,88,244,163,147.000000,0.000000,1.000000,0.000000,1.000000,2.000000,2.000000,0.000000,2.000000
-56358.62890625,-3754992.31250000,35.88999939,105,245,147,147.000000,0.000000,1.000000,0.000000,1.000000,1.000000,1.000000,128.000000,2.000000
-56357.58984375,-3754998.37500000,36.22000122,108,245,144,147.000000,0.000000,1.000000,0.000000,1.000000,1.000000,1.000000,250.000000,2.000000
-56356.47656250,-3754999.75000000,36.22000122,108,245,144,147.000000,0.000000,1.000000,0.000000,0.000000,1.000000,1.000000,160.000000,2.000000
-56356.61718750,-3754998.93750000,36.18999863,108,245,144,147.000000,0.000000,1.000000,0.000000,0.000000,1.000000,1.000000,188.000000,2.000000
-56356.76953125,-3754998.06250000,36.20000076,108,245,144,147.000000,0.000000,1.000000,0.000000,0.000000,1.000000,1.000000,112.000000,2.000000
-56356.91796875,-3754997.25000000,36.15000153,107,245,144,147.000000,0.000000,1.000000,0.000000,0.000000,1.000000,1.000000,79.000000,2.000000
-56357.06640625,-3754996.37500000,36.15000153,107,245,144,147.000000,0.000000,1.000000,0.000000,0.000000,1.000000,1.000000,73.000000,2.000000
-56357.98828125,-3754990.31250000,34.16999817,88,244,163,147.000000,0.000000,1.000000,0.000000,0.000000,1.000000,1.000000,135.000000,2.000000
-56358.11718750,-3754989.43750000,33.90000153,86,244,165,147.000000,0.000000,1.000000,0.000000,0.000000,1.000000,1.000000,138.000000,2.000000
-56358.25781250,-3754988.56250000,33.81999969,85,244,166,147.000000,0.000000,1.000000,0.000000,0.000000,1.000000,1.000000,99.000000,2.000000
-56358.39843750,-3754987.75000000,33.77000046,84,244,167,147.000000,0.000000,1.000000,0.000000,0.000000,1.000000,1.000000,92.000000,2.000000
-56358.55859375,-3754986.87500000,33.74000168,84,244,167,147.000000,0.000000,1.000000,0.000000,0.000000,2.000000,2.000000,7.000000,2.000000
-56359.56640625,-3754980.93750000,33.20000076,79,243,172,147.000000,0.000000,1.000000,0.000000,0.000000,3.000000,3.000000,5.000000,2.000000
-56359.84765625,-3754979.18750000,32.99000168,77,243,174,147.000000,0.000000,0.000000,0.000000,0.000000,1.000000,1.000000,110.000000,2.000000
-56359.99609375,-3754978.37500000,32.88000107,76,243,175,147.000000,0.000000,0.000000,0.000000,0.000000,1.000000,1.000000,155.000000,2.000000
-56360.13671875,-3754977.50000000,32.79999924,75,243,176,147.000000,0.000000,0.000000,0.000000,0.000000,2.000000,2.000000,5.000000,2.000000
-56360.42968750,-3754975.81250000,32.79000092,75,243,176,147.000000,0.000000,0.000000,0.000000,0.000000,1.000000,1.000000,35.000000,2.000000
-56360.57812500,-3754974.93750000,32.77000046,75,243,176,147.000000,0.000000,0.000000,0.000000,0.000000,1.000000,1.000000,139.000000,2.000000
-56360.72656250,-3754974.12500000,32.72999954,74,243,176,147.000000,0.000000,0.000000,0.000000,0.000000,1.000000,1.000000,144.000000,2.000000
-56360.86718750,-3754973.25000000,32.59000015,73,243,178,147.000000,0.000000,0.000000,0.000000,0.000000,1.000000,1.000000,114.000000,2.000000
-56362.11718750,-3754965.56250000,31.12000084,59,242,192,147.000000,0.000000,0.000000,0.000000,0.000000,1.000000,1.000000,62.000000,2.000000
-56362.25781250,-3754964.75000000,31.09000015,59,242,192,147.000000,0.000000,0.000000,0.000000,0.000000,1.000000,1.000000,54.000000,2.000000
-56362.40625000,-3754963.87500000,31.07999992,59,242,192,147.000000,0.000000,0.000000,0.000000,0.000000,1.000000,1.000000,52.000000,2.000000
-56362.55859375,-3754963.00000000,31.05999947,59,242,192,147.000000,0.000000,0.000000,0.000000,0.000000,1.000000,1.000000,46.000000,2.000000
-56362.69921875,-3754962.18750000,31.04999924,59,242,192,147.000000,0.000000,0.000000,0.000000,0.000000,1.000000,1.000000,45.000000,2.000000
-56362.84765625,-3754961.37500000,31.00000000,58,242,193,147.000000,0.000000,0.000000,0.000000,0.000000,1.000000,1.000000,46.000000,2.000000
-56363.13671875,-3754959.68750000,30.95000076,58,242,193,147.000000,0.000000,0.000000,0.000000,0.000000,1.000000,1.000000,49.000000,2.000000
-56363.28906250,-3754958.81250000,30.88999939,57,242,194,147.000000,0.000000,0.000000,0.000000,0.000000,1.000000,1.000000,35.000000,2.000000
-56363.42968750,-3754957.93750000,30.81999969,56,242,194,147.000000,0.000000,0.000000,0.000000,0.000000,1.000000,1.000000,47.000000,2.000000
-56363.57812500,-3754957.12500000,30.81999969,56,242,194,147.000000,0.000000,0.000000,0.000000,0.000000,1.000000,1.000000,60.000000,2.000000
-56363.71875000,-3754956.31250000,30.82999992,56,242,194,147.000000,0.000000,0.000000,0.000000,0.000000,1.000000,1.000000,40.000000,2.000000
-56363.86718750,-3754955.43750000,30.81999969,56,242,194,147.000000,0.000000,0.000000,0.000000,0.000000,1.000000,1.000000,85.000000,2.000000
-56364.01953125,-3754954.62500000,30.82999992,56,242,194,147.000000,0.000000,0.000000,0.000000,0.000000,1.000000,1.000000,23.000000,2.000000
-56367.03906250,-3754937.12500000,30.12000084,50,242,201,147.000000,0.000000,0.000000,0.000000,0.000000,1.000000,1.000000,101.000000,2.000000
-56367.18750000,-3754936.25000000,30.07999992,49,242,201,147.000000,0.000000,0.000000,0.000000,0.000000,1.000000,1.000000,123.000000,2.000000
-56367.87890625,-3754932.06250000,29.32999992,42,241,208,147.000000,0.000000,0.000000,0.000000,0.000000,2.000000,2.000000,0.000000,2.000000
-56368.67968750,-3754927.00000000,28.23999977,32,240,219,147.000000,0.000000,-1.000000,0.000000,0.000000,1.000000,1.000000,21.000000,2.000000
-56368.81640625,-3754926.18750000,28.20000076,31,240,219,147.000000,0.000000,-1.000000,0.000000,0.000000,2.000000,2.000000,3.000000,2.000000
-56368.95703125,-3754925.37500000,28.12000084,30,240,220,147.000000,0.000000,-1.000000,0.000000,0.000000,2.000000,2.000000,1.000000,2.000000
-56369.09765625,-3754924.50000000,27.95999908,29,240,221,147.000000,0.000000,-1.000000,0.000000,0.000000,1.000000,1.000000,19.000000,2.000000
-56369.23828125,-3754923.68750000,28.00000000,29,240,221,147.000000,0.000000,-1.000000,0.000000,0.000000,1.000000,1.000000,2.000000,2.000000
-56368.64843750,-3754924.31250000,28.09000015,30,240,220,147.000000,0.000000,-1.000000,0.000000,1.000000,1.000000,1.000000,10.000000,2.000000
-56368.48828125,-3754925.12500000,27.98999977,29,240,221,147.000000,0.000000,-1.000000,0.000000,1.000000,1.000000,1.000000,69.000000,2.000000
-56368.35937500,-3754925.93750000,28.15999985,31,240,219,147.000000,0.000000,-1.000000,0.000000,1.000000,1.000000,1.000000,45.000000,2.000000
-56368.19921875,-3754926.81250000,28.21999931,31,240,219,147.000000,0.000000,-1.000000,0.000000,1.000000,1.000000,1.000000,42.000000,2.000000
-56368.06640625,-3754927.68750000,28.35000038,33,240,217,147.000000,0.000000,-1.000000,0.000000,1.000000,2.000000,2.000000,18.000000,2.000000
-56367.50781250,-3754931.00000000,28.69000053,36,241,214,147.000000,0.000000,0.000000,0.000000,1.000000,2.000000,2.000000,4.000000,2.000000
-56366.69921875,-3754936.12500000,30.06999969,49,242,201,147.000000,0.000000,0.000000,0.000000,1.000000,2.000000,2.000000,141.000000,2.000000
-56363.48828125,-3754954.62500000,30.84000015,56,242,194,147.000000,0.000000,0.000000,0.000000,1.000000,1.000000,1.000000,137.000000,2.000000
-56363.32812500,-3754955.43750000,30.81999969,56,242,194,147.000000,0.000000,0.000000,0.000000,1.000000,1.000000,1.000000,154.000000,2.000000
-56363.03906250,-3754957.12500000,30.84000015,56,242,194,147.000000,0.000000,0.000000,0.000000,1.000000,1.000000,1.000000,76.000000,2.000000
-56362.88671875,-3754957.93750000,30.89999962,57,242,194,147.000000,0.000000,0.000000,0.000000,1.000000,1.000000,1.000000,60.000000,2.000000
-56362.74609375,-3754958.81250000,30.93000031,57,242,193,147.000000,0.000000,0.000000,0.000000,1.000000,1.000000,1.000000,50.000000,2.000000
-56362.59765625,-3754959.68750000,30.97999954,58,242,193,147.000000,0.000000,0.000000,0.000000,1.000000,1.000000,1.000000,61.000000,2.000000
-56362.44921875,-3754960.50000000,30.97999954,58,242,193,147.000000,0.000000,0.000000,0.000000,1.000000,1.000000,1.000000,57.000000,2.000000
-56362.30859375,-3754961.37500000,31.02000046,58,242,192,147.000000,0.000000,0.000000,0.000000,1.000000,1.000000,1.000000,64.000000,2.000000
-56362.14843750,-3754962.18750000,31.05999947,59,242,192,147.000000,0.000000,0.000000,0.000000,1.000000,1.000000,1.000000,87.000000,2.000000
-56361.99609375,-3754963.06250000,31.06999969,59,242,192,147.000000,0.000000,0.000000,0.000000,1.000000,1.000000,1.000000,95.000000,2.000000
-56361.85937500,-3754963.93750000,31.09000015,59,242,192,147.000000,0.000000,0.000000,0.000000,1.000000,1.000000,1.000000,107.000000,2.000000
-56361.70703125,-3754964.75000000,31.12999916,59,242,192,147.000000,0.000000,0.000000,0.000000,1.000000,1.000000,1.000000,123.000000,2.000000
-56360.29687500,-3754973.37500000,32.65000153,74,243,177,147.000000,0.000000,0.000000,0.000000,1.000000,1.000000,1.000000,163.000000,2.000000
-56360.14843750,-3754974.25000000,32.72000122,74,243,176,147.000000,0.000000,0.000000,0.000000,1.000000,1.000000,1.000000,195.000000,2.000000
-56360.00781250,-3754975.06250000,32.77999878,75,243,176,147.000000,0.000000,0.000000,0.000000,1.000000,1.000000,1.000000,34.000000,2.000000
-56359.84765625,-3754975.93750000,32.79999924,75,243,176,147.000000,0.000000,0.000000,0.000000,1.000000,1.000000,1.000000,9.000000,2.000000
-56359.55859375,-3754977.62500000,32.79999924,75,243,176,147.000000,0.000000,0.000000,0.000000,1.000000,1.000000,1.000000,22.000000,2.000000
-56359.39843750,-3754978.50000000,32.84999847,76,243,175,147.000000,0.000000,0.000000,0.000000,1.000000,1.000000,1.000000,220.000000,2.000000
-56359.26953125,-3754979.37500000,33.02999878,78,243,174,147.000000,0.000000,0.000000,0.000000,1.000000,2.000000,2.000000,53.000000,2.000000
-56358.97656250,-3754981.06250000,33.18999863,79,243,172,147.000000,0.000000,1.000000,0.000000,1.000000,3.000000,3.000000,0.000000,2.000000
-56357.80859375,-3754987.93750000,33.83000183,85,244,166,147.000000,0.000000,1.000000,0.000000,1.000000,2.000000,2.000000,52.000000,2.000000
-56357.65625000,-3754988.75000000,33.84000015,85,244,166,147.000000,0.000000,1.000000,0.000000,1.000000,1.000000,1.000000,173.000000,2.000000
-56357.50781250,-3754989.68750000,33.91999817,86,244,165,147.000000,0.000000,1.000000,0.000000,1.000000,1.000000,1.000000,193.000000,2.000000
-56357.36718750,-3754990.50000000,34.09000015,88,244,163,147.000000,0.000000,1.000000,0.000000,1.000000,1.000000,1.000000,195.000000,2.000000
-56356.58984375,-3754995.75000000,36.11000061,107,245,145,147.000000,0.000000,1.000000,0.000000,1.000000,1.000000,1.000000,107.000000,2.000000
-56356.43750000,-3754996.62500000,36.15000153,107,245,144,147.000000,0.000000,1.000000,0.000000,1.000000,1.000000,1.000000,140.000000,2.000000
-56356.28906250,-3754997.43750000,36.13999939,107,245,144,147.000000,0.000000,1.000000,0.000000,1.000000,1.000000,1.000000,179.000000,2.000000
-56356.13671875,-3754998.37500000,36.15000153,107,245,144,147.000000,0.000000,1.000000,0.000000,1.000000,1.000000,1.000000,206.000000,2.000000
-56355.98828125,-3754999.18750000,36.18999863,108,245,144,147.000000,0.000000,1.000000,0.000000,1.000000,1.000000,1.000000,188.000000,2.000000
-56355.31640625,-3754999.56250000,36.18000031,108,245,144,147.000000,0.000000,1.000000,0.000000,0.000000,1.000000,1.000000,146.000000,2.000000
-56355.46875000,-3754998.75000000,36.15000153,107,245,144,147.000000,0.000000,1.000000,0.000000,0.000000,1.000000,1.000000,142.000000,2.000000
-56355.62890625,-3754997.87500000,36.18000031,108,245,144,147.000000,0.000000,1.000000,0.000000,0.000000,1.000000,1.000000,151.000000,2.000000
-56355.75781250,-3754997.00000000,36.11000061,107,245,145,147.000000,0.000000,1.000000,0.000000,0.000000,1.000000,1.000000,118.000000,2.000000
-56356.21875000,-3754994.43750000,36.15999985,107,245,144,147.000000,0.000000,1.000000,0.000000,0.000000,1.000000,1.000000,82.000000,2.000000
-56356.51953125,-3754991.81250000,33.93000031,86,244,165,147.000000,0.000000,1.000000,0.000000,0.000000,2.000000,2.000000,14.000000,2.000000
-56356.67968750,-3754990.93750000,33.97999954,87,244,165,147.000000,0.000000,1.000000,0.000000,0.000000,1.000000,1.000000,113.000000,2.000000
-56356.83984375,-3754990.06250000,34.04000092,87,244,164,147.000000,0.000000,1.000000,0.000000,0.000000,1.000000,1.000000,121.000000,2.000000
-56356.96875000,-3754989.25000000,33.90000153,86,244,165,147.000000,0.000000,1.000000,0.000000,0.000000,1.000000,1.000000,128.000000,2.000000
-56357.11718750,-3754988.37500000,33.81000137,85,244,166,147.000000,0.000000,1.000000,0.000000,0.000000,2.000000,2.000000,22.000000,2.000000
-56357.26953125,-3754987.50000000,33.77000046,84,244,167,147.000000,0.000000,1.000000,0.000000,0.000000,2.000000,2.000000,34.000000,2.000000
-56358.70703125,-3754978.93750000,32.88000107,76,243,175,147.000000,0.000000,0.000000,0.000000,0.000000,2.000000,2.000000,3.000000,2.000000
-56358.84765625,-3754978.12500000,32.79999924,75,243,176,147.000000,0.000000,0.000000,0.000000,0.000000,1.000000,1.000000,19.000000,2.000000
-56359.44921875,-3754974.75000000,32.79000092,75,243,176,147.000000,0.000000,0.000000,0.000000,0.000000,1.000000,1.000000,5.000000,2.000000
-56359.58984375,-3754973.87500000,32.74000168,75,243,176,147.000000,0.000000,0.000000,0.000000,0.000000,1.000000,1.000000,142.000000,2.000000
-56359.72656250,-3754973.06250000,32.63000107,74,243,177,147.000000,0.000000,0.000000,0.000000,0.000000,1.000000,1.000000,129.000000,2.000000
-56361.12890625,-3754964.50000000,31.23999977,60,242,190,147.000000,0.000000,0.000000,0.000000,0.000000,2.000000,2.000000,0.000000,2.000000
-56361.26953125,-3754963.62500000,31.12000084,59,242,192,147.000000,0.000000,0.000000,0.000000,0.000000,1.000000,1.000000,89.000000,2.000000
-56361.41796875,-3754962.81250000,31.09000015,59,242,192,147.000000,0.000000,0.000000,0.000000,0.000000,1.000000,1.000000,82.000000,2.000000
-56361.55859375,-3754962.00000000,31.05999947,59,242,192,147.000000,0.000000,0.000000,0.000000,0.000000,1.000000,1.000000,16.000000,2.000000
-56361.70703125,-3754961.12500000,31.07999992,59,242,192,147.000000,0.000000,0.000000,0.000000,0.000000,1.000000,1.000000,52.000000,2.000000
-56361.85937500,-3754960.25000000,31.02000046,58,242,192,147.000000,0.000000,0.000000,0.000000,0.000000,1.000000,1.000000,42.000000,2.000000
-56361.99609375,-3754959.43750000,30.95999908,58,242,193,147.000000,0.000000,0.000000,0.000000,0.000000,1.000000,1.000000,48.000000,2.000000
-56362.14843750,-3754958.62500000,30.94000053,57,242,193,147.000000,0.000000,0.000000,0.000000,0.000000,1.000000,1.000000,47.000000,2.000000
-56362.28906250,-3754957.75000000,30.87999916,57,242,194,147.000000,0.000000,0.000000,0.000000,0.000000,1.000000,1.000000,45.000000,2.000000
-56362.42968750,-3754956.93750000,30.79000092,56,242,195,147.000000,0.000000,0.000000,0.000000,0.000000,1.000000,1.000000,48.000000,2.000000
-56362.72656250,-3754955.25000000,30.85000038,57,242,194,147.000000,0.000000,0.000000,0.000000,0.000000,1.000000,1.000000,121.000000,2.000000
-56366.04687500,-3754936.00000000,30.02000046,49,241,202,147.000000,0.000000,0.000000,0.000000,0.000000,1.000000,1.000000,126.000000,2.000000
-56367.26953125,-3754928.43750000,28.40999985,33,240,217,147.000000,0.000000,0.000000,0.000000,0.000000,2.000000,2.000000,13.000000,2.000000
-56367.40625000,-3754927.62500000,28.32999992,33,240,218,147.000000,0.000000,-1.000000,0.000000,0.000000,1.000000,1.000000,30.000000,2.000000
-56367.53906250,-3754926.81250000,28.23999977,32,240,219,147.000000,0.000000,-1.000000,0.000000,0.000000,1.000000,1.000000,18.000000,2.000000
-56367.67968750,-3754925.93750000,28.04000092,30,240,220,147.000000,0.000000,-1.000000,0.000000,0.000000,1.000000,1.000000,63.000000,2.000000
-56367.81640625,-3754925.12500000,28.09000015,30,240,220,147.000000,0.000000,-1.000000,0.000000,0.000000,1.000000,1.000000,6.000000,2.000000
-56367.96875000,-3754924.31250000,28.12999916,30,240,220,147.000000,0.000000,-1.000000,0.000000,0.000000,1.000000,1.000000,3.000000,2.000000
-56368.11718750,-3754923.50000000,28.12000084,30,240,220,147.000000,0.000000,-1.000000,0.000000,0.000000,1.000000,1.000000,4.000000,2.000000
-56367.44921875,-3754923.93750000,28.20999908,31,240,219,147.000000,0.000000,-1.000000,0.000000,1.000000,1.000000,1.000000,11.000000,2.000000
-56367.28906250,-3754924.81250000,28.25000000,32,240,219,147.000000,0.000000,-1.000000,0.000000,1.000000,1.000000,1.000000,10.000000,2.000000
-56367.14843750,-3754925.56250000,28.14999962,31,240,220,147.000000,0.000000,-1.000000,0.000000,1.000000,1.000000,1.000000,14.000000,2.000000
-56367.00781250,-3754926.37500000,28.11000061,30,240,220,147.000000,0.000000,-1.000000,0.000000,1.000000,1.000000,1.000000,66.000000,2.000000
-56366.85937500,-3754927.31250000,28.30999947,32,240,218,147.000000,0.000000,-1.000000,0.000000,1.000000,1.000000,1.000000,30.000000,2.000000
-56366.72656250,-3754928.12500000,28.39999962,33,240,217,147.000000,0.000000,0.000000,0.000000,1.000000,1.000000,1.000000,29.000000,2.000000
-56366.58984375,-3754928.93750000,28.45000076,34,241,217,147.000000,0.000000,0.000000,0.000000,1.000000,1.000000,1.000000,37.000000,2.000000
